ply
format ascii 1.0
element vertex 707
property float x
property float y
property float z
property float nx
property float ny
property float nz
property uchar diffuse_red
property uchar diffuse_green
property uchar diffuse_blue
end_header
0.0562285 -0.169295 0.498592 -0.209532 0.611018 -0.763383 53 38 31
0.0569317 -0.169608 0.497754 -0.197689 0.546542 -0.813763 64 44 35
0.0576841 -0.169002 0.497611 -0.192479 0.497048 -0.846106 62 48 40
0.0601641 -0.169058 0.496503 -0.205945 0.5024 -0.839751 123 112 99
0.0612945 -0.169012 0.496743 -0.432762 0.683293 -0.588071 111 104 90
0.0617274 -0.168449 0.496241 -0.279362 0.69592 -0.661553 129 120 108
0.0624457 -0.16838 0.49599 -0.217082 0.604798 -0.766221 115 106 97
0.0638967 -0.168158 0.495095 -0.218733 0.582761 -0.782653 79 73 71
0.0775022 -0.165375 0.491407 0.366139 -0.282307 -0.886705 23 21 20
0.0883868 -0.165553 0.496572 0.242985 0.19172 -0.950895 30 26 22
-0.552282 -0.362984 1.07632 0.508992 0.172014 -0.843409 112 95 85
-0.549792 -0.364427 1.07789 0.701519 -0.0732578 -0.708875 133 121 99
-0.525622 -0.352797 1.04404 0.84016 -0.102855 -0.532496 156 145 116
-0.501445 -0.354564 1.05937 0.855894 0.147769 -0.495591 172 161 128
-0.503183 -0.355629 1.06027 0.854905 0.167611 -0.490962 181 170 137
-0.497337 -0.355765 1.068 0.863488 0.0512063 -0.501763 81 69 59
-0.44637 -0.662391 2.38736 -0.459157 -0.00739366 -0.888324 165 156 135
-0.448076 -0.660794 2.38891 -0.75016 -0.035131 -0.660323 151 142 122
-0.372543 -0.653416 2.38648 0.768295 0.163523 -0.618856 160 147 103
-0.364661 -0.65326 2.39183 0.782545 0.215461 -0.584123 46 34 28
-0.252637 -0.616361 2.28198 0.734992 0.407074 -0.542289 123 100 94
-0.228602 -0.623709 2.32285 -0.220511 0.255692 -0.941274 195 176 132
-0.223315 -0.624627 2.3266 -0.190906 0.234747 -0.953126 200 178 129
-0.217514 -0.62357 2.32451 -0.728851 0.0650344 -0.681576 76 64 27
-0.213832 -0.623056 2.32212 -0.652527 0.650254 -0.389074 37 27 18
-0.000407951 -0.174519 0.498805 0.220516 0.187056 -0.957279 76 72 62
0.0179709 -0.170261 0.491247 0.171473 -0.30308 -0.937411 43 39 32
0.0240564 -0.173006 0.502286 0.422793 -0.193156 -0.885402 36 31 25
0.0242652 -0.172798 0.5012 0.432312 -0.186419 -0.882244 34 29 24
0.02836 -0.171601 0.499685 0.35138 0.55637 -0.752984 36 32 26
0.0283893 -0.171773 0.499845 0.351515 0.556717 -0.752664 36 32 26
0.0293603 -0.170721 0.498116 0.222436 0.725349 -0.651453 39 34 28
0.0303278 -0.170918 0.499704 0.297347 0.650989 -0.698425 39 33 27
0.0313123 -0.171132 0.498212 0.324569 0.612145 -0.721064 43 37 32
0.0324301 -0.171144 0.499657 0.314857 0.61314 -0.724517 39 35 30
0.035734 -0.170927 0.501135 0.270693 0.670835 -0.690439 35 30 25
0.0380712 -0.167623 0.486803 0.434616 -0.106971 -0.894241 36 30 25
0.0390231 -0.167574 0.486992 0.434813 -0.10395 -0.894501 36 31 25
0.0397851 -0.16749 0.486883 0.43355 -0.143925 -0.889562 36 31 25
0.0429546 -0.167142 0.487878 -0.602889 0.247025 -0.758619 36 30 25
0.0569167 -0.16868 0.498352 -0.199326 0.561541 -0.803082 46 40 32
0.0589057 -0.16782 0.497319 -0.191686 0.579382 -0.792195 125 116 101
0.0602971 -0.168143 0.497265 -0.254172 0.67028 -0.697224 138 127 114
0.0625537 -0.167733 0.496114 -0.316432 0.752422 -0.577696 114 104 97
0.0624378 -0.167476 0.49669 -0.305881 0.745411 -0.592283 118 109 103
0.0632433 -0.167054 0.497033 -0.254547 0.703295 -0.663764 85 77 74
0.0641615 -0.167259 0.49617 -0.235661 0.63358 -0.736913 79 73 68
0.075067 -0.165443 0.49181 0.156101 -0.604264 -0.781344 26 23 20
0.0753442 -0.165214 0.493786 -0.189343 -0.744756 -0.639913 25 22 20
0.0776187 -0.165358 0.492112 0.358232 -0.300217 -0.884047 23 21 20
0.0802799 -0.16529 0.492773 0.305483 -0.128037 -0.94355 30 28 24
-0.554331 -0.362045 1.07288 0.783722 0.183119 -0.593504 52 30 33
-0.551465 -0.361288 1.07562 0.280811 0.249336 -0.92681 125 112 94
-0.549635 -0.361117 1.07529 0.305741 0.350332 -0.885319 121 112 88
-0.503542 -0.353291 1.05864 0.752823 0.146702 -0.641667 167 156 122
-0.503576 -0.3533 1.05875 0.743324 0.150915 -0.651685 167 156 122
-0.502466 -0.354163 1.0603 0.85469 0.167201 -0.491476 173 162 130
-0.502503 -0.35411 1.0601 0.854447 0.169964 -0.490951 173 162 130
-0.501797 -0.352541 1.05957 0.854973 0.161641 -0.492843 171 160 128
-0.498509 -0.353996 1.06264 0.855587 0.05284 -0.514954 122 110 80
-0.448554 -0.658345 2.38965 -0.770951 -0.00925063 -0.636828 152 144 124
-0.384392 -0.651425 2.37877 0.546457 0.675179 -0.495498 183 170 136
-0.380712 -0.64946 2.37527 -0.145143 0.938827 -0.312308 182 166 127
-0.372246 -0.651811 2.38674 0.771665 0.158536 -0.615954 150 138 94
-0.367672 -0.652095 2.39252 0.783629 0.15487 -0.601615 68 60 32
-0.363304 -0.647437 2.38515 -0.508614 0.771758 -0.381709 45 36 28
-0.250891 -0.612698 2.28258 0.755162 0.201589 -0.623772 134 110 97
-0.233887 -0.622779 2.31904 0.102406 0.462184 -0.880851 189 171 140
-0.224966 -0.620908 2.3285 0.0737283 0.460887 -0.884391 199 180 131
-0.220429 -0.620786 2.32825 -0.629282 0.0768288 -0.77337 149 134 82
0.0174339 -0.169505 0.49272 0.175713 -0.306589 -0.935483 41 37 29
0.017485 -0.169507 0.492774 0.148012 -0.300372 -0.942268 41 37 30
0.0186363 -0.169268 0.491204 0.160788 -0.211459 -0.964071 38 35 28
0.0178944 -0.169352 0.491698 0.172142 -0.304825 -0.936723 40 36 30
0.0208626 -0.169163 0.490355 0.412475 -0.242812 -0.878013 37 33 27
0.0240366 -0.171928 0.502597 0.404098 -0.249424 -0.880053 41 36 30
0.0255039 -0.170615 0.500281 0.383988 0.494548 -0.779728 34 29 24
0.0277778 -0.170442 0.498897 0.368356 0.466451 -0.8042 37 31 26
0.0276485 -0.170573 0.498874 0.389407 0.478556 -0.786986 36 31 26
0.0277699 -0.170668 0.500209 0.0993278 0.562057 -0.821112 37 32 26
0.0274343 -0.17076 0.499823 0.36954 0.522386 -0.768475 37 32 26
0.0295531 -0.170274 0.497356 0.298495 0.636872 -0.710841 39 34 28
0.0341329 -0.170123 0.500645 0.228206 0.717809 -0.657779 37 32 27
0.0333733 -0.166984 0.488676 0.278507 -0.476442 -0.833928 36 31 26
0.0355198 -0.16712 0.490089 -0.00737599 -0.595659 -0.803204 36 31 26
0.0384448 -0.166684 0.487934 0.432981 -0.0466089 -0.900197 35 30 24
0.0390897 -0.166576 0.48753 0.366407 -0.161521 -0.916328 36 30 24
0.0580916 -0.167502 0.498036 -0.172768 0.510344 -0.842437 124 113 98
0.0602678 -0.167255 0.498069 -0.270591 0.75137 -0.601851 140 130 118
0.0618419 -0.166889 0.497562 -0.339636 0.771613 -0.53783 126 115 107
0.0641497 -0.16639 0.497069 -0.301239 0.73393 -0.60877 70 64 59
0.0729279 -0.167086 0.504321 -0.232953 0.255872 -0.938223 51 44 37
0.0817407 -0.162265 0.488852 -0.0715597 -0.312371 -0.947261 74 70 59
0.084311 -0.162299 0.48896 0.265825 0.0187563 -0.963839 56 52 47
-0.552893 -0.361139 1.07648 0.550736 0.0542481 -0.832915 108 92 80
-0.525373 -0.350162 1.04395 0.857842 -0.0610343 -0.510276 160 147 119
-0.504147 -0.351371 1.0604 0.695096 0.186016 -0.694435 169 158 125
-0.504223 -0.351351 1.06032 0.702036 0.165087 -0.692742 174 163 131
-0.504189 -0.351381 1.06046 0.693054 0.18813 -0.695905 169 158 125
-0.502834 -0.352075 1.06009 0.758368 0.0497057 -0.649929 163 152 118
-0.502869 -0.352092 1.06021 0.75152 0.0491743 -0.657876 163 152 119
-0.502907 -0.352111 1.06038 0.778544 0.0664178 -0.624066 166 156 125
-0.501097 -0.351385 1.06143 0.818266 0.166585 -0.550174 175 163 122
-0.501631 -0.350966 1.06211 0.809753 0.181736 -0.557918 176 165 124
-0.499893 -0.35247 1.06369 0.852443 0.171734 -0.49381 153 142 108
-0.5001 -0.35175 1.06334 0.85645 0.0995291 -0.506544 156 145 111
-0.452097 -0.65789 2.39493 -0.778851 -0.00867362 -0.627149 170 162 138
-0.448383 -0.654071 2.38939 -0.783844 0.0175408 -0.620709 156 148 128
-0.376816 -0.645393 2.38056 0.783423 0.181213 -0.594483 177 164 121
-0.3748 -0.645153 2.38279 0.782746 0.180238 -0.595671 157 146 101
-0.375278 -0.646914 2.39187 0.747885 0.175856 -0.640111 166 151 114
-0.372932 -0.647361 2.38931 0.764206 0.161728 -0.624366 143 148 99
-0.369566 -0.648921 2.39252 0.216294 0.129376 -0.967718 86 88 53
-0.366375 -0.648348 2.39042 -0.158374 0.257239 -0.953281 45 42 28
-0.364887 -0.647128 2.39453 0.738803 0.178643 -0.649813 45 35 29
-0.362482 -0.647747 2.39205 0.780791 0.165727 -0.602412 45 36 28
-0.257188 -0.609652 2.2782 0.727253 0.249949 -0.639241 199 186 155
-0.253944 -0.611487 2.28177 0.734195 0.164628 -0.658677 170 153 132
-0.249763 -0.607515 2.27542 0.789633 -0.0155615 -0.613382 136 108 103
-0.252052 -0.611817 2.28001 0.735256 0.169092 -0.656359 140 117 102
-0.236152 -0.618189 2.31819 0.352639 0.286591 -0.890792 180 163 138
-0.230155 -0.619954 2.32547 -0.408988 0.235532 -0.88162 208 191 151
-0.223261 -0.616857 2.32817 0.206316 0.141216 -0.968242 193 175 122
-0.217131 -0.618252 2.32332 -0.840572 0.151892 -0.519969 39 31 11
0.0160252 -0.169461 0.492201 0.16657 -0.191816 -0.967192 39 36 28
0.0185459 -0.168368 0.491643 -0.0113615 -0.182174 -0.983201 46 41 34
0.0193733 -0.168296 0.491146 0.0761572 -0.284299 -0.955706 44 39 33
0.0202012 -0.168227 0.491089 0.394441 -0.122438 -0.910728 45 41 34
0.0210068 -0.168137 0.490917 0.42068 -0.195274 -0.885944 49 45 38
0.0210316 -0.16815 0.491041 0.424021 -0.184723 -0.886614 50 45 38
0.0206711 -0.166356 0.483923 0.280183 -0.329527 -0.901615 58 54 46
0.025558 -0.169607 0.500039 0.229211 0.313434 -0.921532 38 32 28
0.0252668 -0.169764 0.501059 0.249666 0.293366 -0.922824 39 33 28
0.0263369 -0.169549 0.499659 0.0774881 0.342653 -0.936261 38 33 28
0.0275479 -0.169577 0.500007 0.110908 0.312229 -0.943511 41 36 30
0.0324631 -0.167091 0.489076 0.235727 -0.532816 -0.812736 36 31 26
0.0344421 -0.165919 0.488584 0.171689 -0.48404 -0.858037 37 31 27
0.034878 -0.166442 0.488501 0.0776892 -0.467893 -0.880364 37 31 26
0.034953 -0.166194 0.486566 0.39916 -0.239251 -0.885116 36 31 25
0.0350335 -0.166144 0.486699 0.393297 -0.255476 -0.883204 36 31 25
0.0350196 -0.166141 0.486677 0.393964 -0.253756 -0.883403 36 31 25
0.0426221 -0.166038 0.489364 -0.603077 0.166768 -0.780055 38 32 27
0.0453476 -0.165207 0.487179 -0.248521 -0.179462 -0.951856 47 41 36
0.0618361 -0.165977 0.49886 -0.344883 0.775403 -0.528968 101 91 88
0.0646849 -0.165599 0.498966 0.0921855 0.816938 -0.56931 56 51 46
0.074214 -0.162934 0.490861 0.225225 -0.526947 -0.819512 41 37 34
0.0762443 -0.162758 0.490374 0.295596 -0.364992 -0.882838 46 43 39
0.0763921 -0.162253 0.48734 0.362104 -0.198271 -0.910807 58 56 51
0.201356 -0.124724 0.380473 -0.436217 -0.752212 -0.493854 76 66 54
-0.528229 -0.348363 1.04583 0.769697 0.227845 -0.596367 142 131 110
-0.52482 -0.347543 1.0422 0.756164 0.266029 -0.597867 163 150 124
-0.525019 -0.348493 1.04802 0.592477 0.338342 -0.731092 159 147 122
-0.524501 -0.349042 1.0474 0.574951 0.204892 -0.792118 162 152 125
-0.525335 -0.349338 1.05066 0.723551 0.212023 -0.656902 183 169 136
-0.524505 -0.349432 1.04894 0.688035 0.198292 -0.69806 175 163 132
-0.503015 -0.34943 1.058 0.825949 0.0509744 -0.561435 166 156 126
-0.50215 -0.350891 1.06172 0.851823 0.174105 -0.494049 170 160 127
-0.499805 -0.352277 1.06944 0.854882 0.156418 -0.494681 153 143 98
-0.448631 -0.651387 2.38991 -0.786923 0.0339202 -0.616119 147 138 112
-0.391058 -0.640976 2.37622 0.778251 0.246954 -0.577356 165 157 139
-0.378452 -0.643473 2.3871 0.0281181 0.928186 -0.371052 185 171 124
-0.373631 -0.643417 2.39212 0.677776 0.205738 -0.705897 142 151 103
-0.370787 -0.644458 2.39234 0.682622 0.184422 -0.707118 92 95 55
-0.363978 -0.642535 2.38977 0.66623 0.214801 -0.714142 45 39 31
-0.252275 -0.607631 2.28136 0.780059 -0.141666 -0.609457 131 106 99
-0.239114 -0.61388 2.3173 0.609653 0.263361 -0.747639 152 136 113
-0.219541 -0.615951 2.3296 -0.83999 0.171521 -0.514778 70 65 34
-0.216283 -0.610935 2.32129 -0.532762 0.587592 -0.609016 46 39 29
-0.0269302 -0.166774 0.467918 -0.194364 0.864555 -0.46343 110 107 90
-0.0273114 -0.166841 0.470563 -0.247956 0.911138 -0.32916 106 100 83
-0.0210482 -0.167164 0.474112 0.465537 0.268868 -0.8432 125 117 96
-0.0201552 -0.167347 0.475615 0.469364 0.269923 -0.840737 128 120 99
-0.00303681 -0.169668 0.4937 0.432535 -0.149571 -0.889124 91 82 68
0.020998 -0.165482 0.484796 0.0310437 -0.554318 -0.831726 73 68 56
0.0227534 -0.167182 0.492679 0.403215 -0.26606 -0.875574 64 58 48
0.0252376 -0.16535 0.485383 0.119934 -0.6508 -0.749716 66 61 49
0.0276748 -0.166041 0.487698 0.195664 -0.58007 -0.790717 52 48 40
0.0295311 -0.165032 0.487449 0.0446022 -0.00621307 -0.998985 62 57 50
0.0308585 -0.16508 0.487906 0.0550208 -0.0622453 -0.996543 52 47 40
0.0337872 -0.166107 0.490766 -0.220487 -0.539412 -0.812662 37 33 28
0.0347427 -0.165182 0.487519 0.0427296 -0.527964 -0.848191 39 33 29
0.0343525 -0.16538 0.489252 -0.0219397 -0.541097 -0.840674 40 35 30
0.0351362 -0.16466 0.488108 0.0177305 -0.54089 -0.840906 42 37 32
0.0350884 -0.16503 0.487143 0.13127 -0.569789 -0.811239 39 33 29
0.0368498 -0.164719 0.48859 0.0318799 -0.505205 -0.86241 41 37 33
0.0427807 -0.164311 0.488695 -0.480776 -0.251017 -0.840146 50 45 39
0.0432226 -0.163925 0.486084 0.404371 -0.196752 -0.893181 54 50 44
0.0441678 -0.164338 0.487977 -0.141339 -0.0772229 -0.986945 54 50 45
0.0447572 -0.164252 0.4871 -0.19664 -0.199118 -0.960044 56 52 46
0.062042 -0.16478 0.500114 -0.336785 0.781869 -0.524649 83 75 71
0.0636104 -0.165199 0.499955 -0.0458966 0.825013 -0.563247 73 67 61
0.0803908 -0.160283 0.48813 -0.312583 0.110561 -0.943434 82 77 67
0.082733 -0.160277 0.487897 0.207555 0.140932 -0.968018 72 64 53
0.198856 -0.122682 0.375495 -0.142186 -0.100882 -0.984686 83 66 52
0.202509 -0.123099 0.37712 -0.1019 -0.751843 -0.651421 41 43 45
-0.530239 -0.346584 1.04592 0.767993 0.189975 -0.611633 123 113 95
-0.527842 -0.346782 1.04536 0.768098 0.237171 -0.59479 147 136 115
-0.52871 -0.346397 1.04574 0.761191 0.243623 -0.601029 138 128 109
-0.525015 -0.346157 1.04619 0.721863 0.235049 -0.650896 162 151 124
-0.525348 -0.347254 1.04723 0.761136 0.237841 -0.60341 162 150 125
-0.523934 -0.346954 1.04828 0.0921643 0.36348 -0.927032 163 151 123
-0.501721 -0.346382 1.05595 0.897445 -0.28714 -0.334877 186 172 138
-0.501739 -0.347461 1.06181 0.843089 0.24913 -0.476587 172 161 130
-0.500616 -0.347759 1.06092 0.843323 0.283276 -0.456685 170 159 129
-0.500203 -0.349506 1.0699 0.855482 0.147784 -0.496296 158 147 102
-0.500467 -0.349689 1.06946 0.854756 0.159219 -0.494006 161 150 106
-0.378952 -0.637911 2.37994 0.775505 0.215757 -0.593331 167 153 113
-0.371887 -0.640011 2.39369 0.735212 0.202931 -0.646748 104 106 67
-0.374226 -0.641776 2.38931 0.138851 0.503222 -0.852929 145 132 92
-0.368939 -0.641196 2.39463 0.675261 0.20466 -0.708616 55 53 32
-0.366083 -0.641908 2.39405 0.362811 0.336804 -0.868868 42 38 28
-0.254722 -0.606799 2.29362 0.758771 0.166647 -0.629678 161 139 117
-0.255085 -0.607333 2.30164 0.758928 0.169684 -0.628678 163 144 121
-0.25276 -0.605997 2.29987 0.758403 0.170086 -0.629203 151 130 109
-0.240689 -0.610173 2.31748 0.724258 0.240346 -0.646285 121 113 88
-0.235696 -0.611942 2.32103 0.7379 0.301687 -0.603729 186 169 141
-0.229653 -0.613406 2.32985 0.222738 0.248733 -0.942613 196 180 137
-0.225495 -0.613026 2.32903 0.248775 0.174923 -0.952635 172 156 105
-0.219039 -0.608709 2.32547 -0.838993 0.177349 -0.51443 55 47 24
-0.0267826 -0.166008 0.469654 -0.193019 0.865136 -0.462907 98 92 76
-0.0259417 -0.165526 0.469671 -0.0380985 0.798685 -0.600542 89 82 67
-0.0199745 -0.166617 0.475806 0.459469 0.251953 -0.851709 131 122 100
-0.0196669 -0.166528 0.475477 0.457346 0.251002 -0.853131 133 124 101
0.00842993 -0.168506 0.49768 0.426691 -0.201047 -0.881768 61 58 51
0.00967257 -0.167733 0.494935 0.421807 -0.212102 -0.881528 39 36 31
0.0233113 -0.166225 0.493866 0.416259 -0.210558 -0.88453 80 73 61
0.0232391 -0.166212 0.493751 0.412315 -0.222472 -0.88346 80 73 61
0.0234522 -0.16624 0.494046 0.418042 -0.204877 -0.885023 81 74 62
0.0237798 -0.166077 0.493215 0.418653 -0.201658 -0.885474 86 79 65
0.0225267 -0.164584 0.482816 0.0918968 -0.545428 -0.833104 76 72 61
0.0278257 -0.165145 0.488361 0.110229 -0.373294 -0.921141 63 58 49
0.0272234 -0.164365 0.487312 0.410329 -0.21823 -0.885441 76 71 60
0.0297745 -0.164167 0.488307 0.0997121 -0.333346 -0.937517 80 76 65
0.0310085 -0.164167 0.488437 0.0950381 -0.27137 -0.957771 72 68 58
0.0367305 -0.164158 0.488123 0.0598101 -0.443959 -0.894049 48 44 39
0.0364398 -0.164105 0.487597 -0.0753385 -0.578845 -0.81195 48 44 39
0.0386234 -0.164257 0.489063 -0.039928 -0.390978 -0.919533 52 49 45
0.038445 -0.164216 0.488617 -0.0660277 -0.556193 -0.828426 51 48 44
0.0399484 -0.16427 0.489115 -0.000145346 -0.229797 -0.973238 52 48 43
0.0412456 -0.163017 0.486491 0.518876 -0.285428 -0.805791 60 54 49
0.0419317 -0.162847 0.485754 0.40987 -0.198087 -0.890375 66 62 56
0.041579 -0.162764 0.486889 0.0264626 -0.399937 -0.91616 70 66 59
0.043175 -0.162847 0.486321 0.409521 -0.197796 -0.8906 71 67 60
0.0425148 -0.162698 0.486436 0.0734116 -0.397229 -0.914778 70 67 60
0.0438433 -0.162739 0.485982 0.407096 -0.204724 -0.890147 74 69 61
0.0447197 -0.162634 0.486109 0.0724189 -0.360509 -0.92994 76 71 62
0.0749783 -0.160029 0.488992 0.381792 -0.24426 -0.891388 98 93 80
0.0760646 -0.159696 0.487372 0.37487 -0.259572 -0.889997 100 94 81
0.0777921 -0.160116 0.487678 0.368741 -0.275344 -0.887815 102 97 83
0.0806709 -0.160198 0.488658 0.387402 -0.21964 -0.895365 81 76 66
0.0868625 -0.159261 0.489854 0.355102 0.490113 -0.796048 80 71 61
-0.530019 -0.344587 1.04446 0.434123 0.310033 -0.845823 117 107 90
-0.527124 -0.345563 1.04692 0.76126 0.240182 -0.602325 153 142 119
-0.527107 -0.345437 1.04603 0.762369 0.220781 -0.608316 153 142 119
-0.524442 -0.344705 1.04628 0.667743 0.219007 -0.711446 160 148 121
-0.524446 -0.3447 1.04625 0.663851 0.222989 -0.713847 163 151 124
-0.52185 -0.345964 1.04971 0.802668 0.404456 -0.438337 171 159 128
-0.519978 -0.345677 1.05246 0.778304 0.458455 -0.429024 160 143 114
-0.498748 -0.347253 1.07059 0.865109 0.0887749 -0.493665 101 85 66
-0.393451 -0.633851 2.3761 0.627275 0.21384 -0.748865 133 124 109
-0.389422 -0.634894 2.37531 0.737566 0.249628 -0.627442 176 167 144
-0.389131 -0.633771 2.37573 0.511559 0.338911 -0.789586 182 172 147
-0.379029 -0.63351 2.38105 0.784134 0.153485 -0.601312 146 134 97
-0.374229 -0.637671 2.392 -0.20217 0.543683 -0.814577 120 108 72
-0.370632 -0.635978 2.39197 0.741538 0.209394 -0.637398 77 77 50
-0.36738 -0.637564 2.39502 0.750653 0.191758 -0.632257 45 41 29
-0.255564 -0.604375 2.30322 0.758104 0.182681 -0.626024 165 146 124
-0.252793 -0.604773 2.29697 0.754844 0.211494 -0.620871 149 126 105
-0.245885 -0.60779 2.31147 0.572535 0.282646 -0.769619 116 100 76
-0.223681 -0.608746 2.32887 0.208043 0.269955 -0.940129 174 159 106
-0.0256247 -0.165279 0.472133 0.153488 0.778467 -0.608629 72 64 51
-0.0232325 -0.164868 0.472617 0.313481 0.634703 -0.706315 62 54 41
-0.0228473 -0.164935 0.473222 0.32709 0.609547 -0.722125 62 54 41
-0.0222323 -0.164935 0.473532 0.379828 0.528115 -0.75949 67 59 45
-0.0185568 -0.165924 0.476858 0.451042 0.194044 -0.871153 88 80 58
0.0084049 -0.168202 0.49726 0.43996 -0.182805 -0.879214 61 57 50
0.00961576 -0.166672 0.495272 0.410351 -0.246597 -0.877954 51 48 41
0.0106841 -0.166626 0.495387 0.411211 -0.242998 -0.878554 45 42 35
0.0119422 -0.167262 0.494968 0.429346 -0.185008 -0.883987 45 40 34
0.0136152 -0.165948 0.493122 0.420563 -0.210035 -0.882616 51 47 39
0.0238169 -0.164787 0.492196 0.418545 -0.201691 -0.885517 76 69 57
0.0247468 -0.164729 0.492291 0.419512 -0.221816 -0.880232 77 69 56
0.0286484 -0.164158 0.488314 0.102465 -0.34412 -0.933318 79 74 62
0.0291451 -0.163154 0.487837 0.100084 -0.301059 -0.948339 75 69 58
0.0357234 -0.162429 0.486364 0.0454017 -0.478421 -0.876956 74 68 59
0.0356463 -0.162422 0.486429 0.0488553 -0.470892 -0.880837 74 68 59
0.037377 -0.163096 0.487383 0.0396033 -0.486613 -0.872719 67 62 56
0.0373874 -0.163112 0.487581 0.0558406 -0.445653 -0.893463 67 63 56
0.0388337 -0.162829 0.486947 -0.0583871 -0.430483 -0.900708 63 61 54
0.0405365 -0.162619 0.486316 0.0970441 -0.450105 -0.887687 68 64 57
0.0418238 -0.161809 0.486229 0.523708 -0.269568 -0.808123 81 75 63
0.0430858 -0.161657 0.485911 0.0729611 -0.381418 -0.921519 83 79 69
0.0432443 -0.161313 0.48375 0.373369 -0.296565 -0.879002 87 82 72
0.0437697 -0.161647 0.486051 0.40125 -0.223764 -0.888216 87 82 72
0.0443702 -0.161662 0.486055 0.0724585 -0.359582 -0.930296 86 80 70
0.0549036 -0.15942 0.480957 0.436115 -0.0494521 -0.898531 87 81 69
0.0737091 -0.15851 0.486811 0.105232 -0.595978 -0.796076 56 48 38
0.0817764 -0.157944 0.486793 0.328262 0.546558 -0.770401 53 44 37
0.0834445 -0.158044 0.487782 0.106789 0.235279 -0.966043 69 60 52
0.0834965 -0.158064 0.487674 0.328613 0.545047 -0.771322 70 61 52
0.0859655 -0.158289 0.490045 0.326838 0.200839 -0.923494 74 65 57
0.0870151 -0.158206 0.490306 0.355047 0.489545 -0.796422 82 73 63
0.0935357 -0.157847 0.49165 -0.0652319 0.392042 -0.917632 117 111 99
0.201135 -0.122066 0.377886 0.0431462 -0.660212 -0.749839 71 55 47
-0.529305 -0.343042 1.04506 0.511415 0.264019 -0.817771 129 118 101
-0.530782 -0.343011 1.04522 0.433604 0.32976 -0.838598 116 107 89
-0.527957 -0.343413 1.04543 0.64241 0.224199 -0.732833 146 135 114
-0.527638 -0.34356 1.04615 0.761754 0.220666 -0.609129 149 137 115
-0.525108 -0.344742 1.04887 0.746658 0.207432 -0.63204 163 151 124
-0.524866 -0.342925 1.0469 0.672413 0.2199 -0.706756 160 147 119
-0.524861 -0.34293 1.04693 0.674643 0.219208 -0.704844 158 146 119
-0.521104 -0.343737 1.05197 0.682075 0.483677 -0.54848 147 133 106
-0.503523 -0.345054 1.06539 0.853981 0.166708 -0.492873 169 156 125
-0.502332 -0.345709 1.06319 0.857471 0.11526 -0.501457 159 150 119
-0.380865 -0.630443 2.38201 0.480292 0.75459 -0.447117 171 158 116
-0.374807 -0.63126 2.38711 0.780081 0.207455 -0.590284 118 105 67
-0.369833 -0.634198 2.39365 0.733473 0.206431 -0.647614 54 46 28
-0.366358 -0.633175 2.39162 0.677014 0.187003 -0.711816 46 39 30
-0.365978 -0.634044 2.3938 0.568488 0.20101 -0.797757 45 39 30
-0.252557 -0.598548 2.28993 0.756589 0.187691 -0.626374 157 122 104
-0.238541 -0.604934 2.32121 0.743307 0.276176 -0.609279 153 139 115
-0.225089 -0.60679 2.33213 0.0421554 0.638061 -0.768831 189 173 118
-0.221766 -0.604748 2.32982 -0.473271 0.138358 -0.869984 104 92 44
-0.218064 -0.60136 2.32305 -0.675914 -0.0402082 -0.735883 40 33 22
-0.024844 -0.165121 0.475375 0.0801399 0.693912 -0.715586 58 49 39
-0.0251486 -0.165057 0.475263 0.12369 0.785278 -0.606663 54 46 37
-0.0251038 -0.16505 0.475274 0.139413 0.803168 -0.579211 54 46 37
-0.0245074 -0.164827 0.472539 0.234301 0.725946 -0.646611 62 54 43
-0.0227982 -0.164966 0.477608 0.117196 0.631994 -0.766061 52 42 34
-0.0207759 -0.164547 0.476658 0.367506 0.550946 -0.749265 53 43 33
-0.0183226 -0.165223 0.479139 0.244139 -0.270079 -0.931372 58 47 36
-0.0174448 -0.165185 0.478981 0.239258 -0.230531 -0.943192 57 48 36
-0.00262135 -0.166761 0.492114 0.44456 -0.150279 -0.883053 57 52 44
-0.000807277 -0.166557 0.491761 0.415921 -0.241082 -0.876863 62 58 51
-0.000793564 -0.166558 0.491778 0.417261 -0.237485 -0.877208 62 59 51
0.00113884 -0.165286 0.488385 0.40964 -0.253746 -0.876246 59 55 46
0.00106771 -0.165515 0.48972 0.401419 -0.27617 -0.873266 70 66 56
0.00125689 -0.16554 0.489981 0.40651 -0.263124 -0.874937 70 66 55
0.00301818 -0.16569 0.488897 0.393205 -0.293298 -0.871416 59 54 46
0.00665009 -0.167665 0.498659 0.397792 -0.284455 -0.872265 69 65 56
0.00703892 -0.16768 0.499054 0.422952 -0.216356 -0.879944 67 63 54
0.00786408 -0.167053 0.496741 0.420389 -0.220938 -0.880034 67 63 54
0.00880049 -0.166753 0.495382 0.413513 -0.238655 -0.878664 57 54 46
0.00824913 -0.166883 0.495906 0.41014 -0.248962 -0.877384 62 59 51
0.00828554 -0.167125 0.497385 0.425934 -0.203964 -0.881464 56 53 46
0.00902919 -0.165513 0.494474 0.393207 -0.290891 -0.872222 48 44 37
0.00974336 -0.165401 0.494024 0.338472 -0.355167 -0.871374 44 41 35
0.010025 -0.165422 0.494115 0.416295 -0.250716 -0.87398 48 44 37
0.0105697 -0.165287 0.493588 0.426147 -0.221764 -0.877052 48 43 37
0.0121605 -0.165748 0.495102 0.325614 -0.42158 -0.846313 35 31 26
0.0121303 -0.166162 0.494546 0.438366 -0.152051 -0.885842 35 31 26
0.0140348 -0.16505 0.493893 0.137354 -0.419852 -0.897139 53 47 41
0.0133485 -0.16519 0.491819 0.429788 -0.178103 -0.88519 63 59 51
0.015045 -0.164398 0.492144 0.147557 -0.33411 -0.930912 59 54 47
0.0277813 -0.162117 0.486636 -0.132531 0.0933664 -0.986772 78 71 58
0.0281032 -0.163149 0.48793 0.102403 -0.344726 -0.933101 76 70 58
0.0276425 -0.162273 0.488135 0.0171655 0.169045 -0.985459 76 70 57
0.0310081 -0.16295 0.488707 0.0206307 -0.473589 -0.880504 70 66 55
0.0322931 -0.162704 0.489735 -0.0516592 -0.519578 -0.85286 71 66 54
0.0329567 -0.162358 0.486772 0.0458592 -0.49454 -0.867944 73 68 58
0.0340003 -0.161364 0.486701 0.0738727 -0.40227 -0.912536 75 70 61
0.0344815 -0.161222 0.485559 0.059579 -0.442898 -0.89459 73 69 59
0.0355174 -0.161168 0.485189 0.0399939 -0.516223 -0.85552 79 74 63
0.0373894 -0.16189 0.486806 0.0112821 -0.537224 -0.843364 78 72 63
0.0373835 -0.161869 0.486599 0.0226516 -0.542524 -0.839735 77 72 63
0.0395711 -0.161373 0.48827 0.0452121 -0.460362 -0.886579 77 69 60
0.0437701 -0.160641 0.48559 0.0674435 -0.386124 -0.919978 80 73 63
0.0450504 -0.16064 0.485673 0.0631004 -0.39524 -0.916408 80 72 63
0.0454361 -0.160689 0.48613 -0.166924 -0.161451 -0.972661 76 68 59
0.046565 -0.160694 0.486217 0.0678263 -0.320831 -0.944705 78 71 61
0.0476228 -0.160656 0.486075 0.0613437 -0.362845 -0.929828 78 72 62
0.0488977 -0.159687 0.48551 -0.208485 0.575044 -0.791112 81 75 64
0.0516748 -0.159128 0.483744 -0.504191 0.472458 -0.722893 54 47 41
0.0608214 -0.161909 0.499079 -0.120839 0.152997 -0.980811 44 37 31
0.0583739 -0.157791 0.47956 0.38936 -0.236103 -0.890311 68 61 53
0.0626002 -0.162036 0.500075 -0.0507047 0.110447 -0.992588 44 39 32
0.0600483 -0.158057 0.481981 0.4035 -0.190778 -0.89487 69 64 54
0.0707587 -0.155209 0.471357 -0.180923 0.902039 -0.391909 53 45 38
0.0766747 -0.157371 0.48671 0.00180811 -0.545279 -0.838252 51 41 32
0.0836219 -0.157064 0.487552 -0.33932 -0.544403 -0.76713 70 60 50
0.0865444 -0.157045 0.489827 0.354723 0.489563 -0.796555 56 47 38
0.0876184 -0.157019 0.490141 0.354164 0.489623 -0.796767 57 47 38
0.0879998 -0.156881 0.489488 0.345587 0.484067 -0.803896 62 54 44
0.0922595 -0.156995 0.492378 0.112466 0.299183 -0.947545 98 94 86
0.0927402 -0.156893 0.491607 0.130822 0.327172 -0.935865 110 106 95
0.0927402 -0.156893 0.491607 0.130822 0.327172 -0.935865 96 92 84
0.0945039 -0.156997 0.492705 0.283368 0.614157 -0.736555 65 59 51
0.100573 -0.154614 0.485388 0.0521924 0.833346 -0.550282 45 41 38
0.162555 -0.139675 0.445131 0.247803 0.347913 -0.904185 184 176 157
0.199778 -0.120251 0.374156 0.169005 -0.330811 -0.92844 45 37 35
0.207815 -0.120856 0.380276 -0.0907047 -0.204529 -0.974649 59 60 61
-0.529944 -0.341427 1.04578 0.443253 0.226257 -0.867372 123 112 95
-0.528257 -0.341586 1.04571 0.623553 0.213665 -0.752016 145 133 112
-0.528579 -0.34161 1.04551 0.573912 0.227315 -0.786736 142 130 111
-0.525705 -0.34277 1.04843 0.766508 0.195113 -0.61188 159 147 121
-0.525342 -0.341107 1.04725 0.629154 0.189693 -0.753778 159 146 118
-0.524623 -0.341749 1.04617 0.819341 0.189202 -0.541187 161 149 118
-0.525345 -0.341105 1.04723 0.625814 0.189525 -0.756596 158 146 118
-0.522973 -0.341279 1.05016 0.641407 0.213716 -0.736833 172 159 126
-0.522973 -0.341279 1.05016 0.641407 0.213716 -0.736833 172 159 126
-0.519448 -0.340911 1.04783 0.828611 0.326208 -0.454964 162 150 121
-0.502587 -0.343607 1.06773 0.854336 0.169133 -0.491431 165 150 119
-0.502693 -0.343677 1.06775 0.854153 0.16909 -0.491764 165 150 119
-0.501284 -0.344764 1.07006 0.853333 0.175653 -0.490886 162 147 110
-0.499497 -0.344927 1.07121 0.840634 0.258208 -0.476091 129 101 68
-0.497781 -0.34508 1.07296 0.830259 0.308987 -0.463894 84 38 40
-0.392743 -0.628058 2.38019 0.769415 0.309071 -0.558995 156 143 123
-0.367889 -0.628574 2.39221 0.768625 0.195517 -0.609088 52 44 33
-0.255421 -0.597847 2.29539 0.759796 0.141139 -0.634657 141 122 107
-0.227555 -0.600938 2.33462 -0.766298 0.0702015 -0.638639 201 185 133
-0.223703 -0.600571 2.33077 -0.400327 0.107646 -0.910028 168 152 93
-0.221081 -0.599411 2.32917 -0.827281 -0.0301069 -0.56098 64 54 17
-0.0244148 -0.164322 0.476827 -0.203945 0.858309 -0.470863 44 38 31
-0.0244969 -0.164359 0.47676 0.0656074 0.713228 -0.697855 45 38 31
-0.0243907 -0.164375 0.476925 -0.0371258 0.798142 -0.601325 45 38 31
-0.0220404 -0.164233 0.479612 0.0194835 0.65027 -0.759453 44 36 30
-0.0221414 -0.164212 0.479443 0.0308222 0.629116 -0.7767 44 36 30
-0.017179 -0.164432 0.480234 0.14205 0.0129951 -0.989774 49 41 33
-0.0162969 -0.164401 0.480118 0.152032 0.0835401 -0.984839 51 43 33
-0.0100003 -0.163104 0.479485 -0.14356 -0.352453 -0.924753 79 74 65
-0.00706793 -0.1632 0.478772 -0.0597525 -0.0556448 -0.996661 69 64 56
0.00185641 -0.164154 0.488713 0.163922 -0.548525 -0.819909 53 48 42
0.00233379 -0.164508 0.487955 0.38954 -0.301795 -0.87016 52 48 40
0.0026941 -0.164358 0.487721 0.426415 -0.224251 -0.876288 53 48 40
0.0102305 -0.164154 0.493048 0.309597 -0.448199 -0.83861 42 37 31
0.0109948 -0.164029 0.492514 0.31212 -0.453328 -0.83491 42 36 31
0.0114345 -0.164711 0.494491 0.0642304 -0.473424 -0.878489 46 40 35
0.0132178 -0.163953 0.492899 0.108443 -0.475664 -0.872917 40 35 31
0.0146029 -0.16455 0.49325 0.148295 -0.362528 -0.920099 53 48 42
0.0141534 -0.163304 0.491133 0.122601 -0.443098 -0.88805 50 44 37
0.0143291 -0.163118 0.489674 0.133835 -0.399393 -0.906958 53 47 40
0.0213903 -0.16307 0.49152 0.42912 -0.196723 -0.881564 71 62 50
0.021339 -0.163483 0.491975 0.00573754 0.415483 -0.909583 74 66 53
0.0245891 -0.162812 0.491836 -0.345105 -0.564974 -0.749471 71 64 54
0.0276401 -0.161109 0.485615 -0.23592 0.269939 -0.933528 80 73 61
0.0303653 -0.161949 0.488315 -0.0628586 -0.448893 -0.891372 76 71 61
0.0315207 -0.161368 0.487788 -0.0471861 -0.52825 -0.847776 76 70 59
0.0333845 -0.160338 0.486187 0.0733379 -0.403852 -0.91188 88 82 70
0.0346773 -0.159785 0.482928 0.0816529 -0.415207 -0.906055 83 78 67
0.0368034 -0.160545 0.484952 -0.0301222 -0.607601 -0.793671 76 71 60
0.0377748 -0.160129 0.485903 0.0624238 -0.394213 -0.916897 75 69 59
0.0394132 -0.160177 0.486415 0.0559826 -0.469437 -0.88119 83 77 66
0.0440761 -0.159594 0.484729 -0.287858 -0.496418 -0.818967 76 69 60
0.0465709 -0.159845 0.486946 0.0395919 -0.114917 -0.992586 81 73 63
0.0467037 -0.159798 0.486848 -0.0356265 0.426861 -0.903615 79 72 62
0.0473367 -0.159785 0.486467 0.0060567 0.0202222 -0.999777 79 72 61
0.047866 -0.15969 0.485654 -0.0984162 0.443087 -0.89106 80 73 61
0.0480258 -0.1588 0.485376 -0.176393 0.753286 -0.633597 81 74 62
0.0526285 -0.157509 0.48083 -0.286146 -0.170023 -0.942981 69 60 53
0.0527567 -0.157563 0.48106 -0.214518 -0.104587 -0.971104 69 60 53
0.052619 -0.157741 0.482793 -0.604056 0.319448 -0.730116 71 62 53
0.0596395 -0.156916 0.481681 0.382297 -0.251778 -0.889077 60 52 46
0.0608292 -0.156876 0.481904 0.459058 -0.373228 -0.806205 49 42 35
0.0618305 -0.156747 0.481703 0.461359 -0.376619 -0.803309 52 44 38
0.0628662 -0.156626 0.481575 0.439724 -0.412213 -0.79795 54 44 37
0.0620264 -0.155902 0.47884 0.253129 0.67755 -0.690545 67 58 50
0.0663361 -0.156398 0.482355 0.0553395 0.832161 -0.551767 61 51 45
0.0696304 -0.156739 0.485617 -0.0945267 0.16015 -0.982556 62 52 46
0.0710897 -0.154581 0.473388 -0.199921 0.894863 -0.399063 57 49 43
0.071812 -0.153854 0.472982 -0.0653328 0.882083 -0.466542 75 67 60
0.0772496 -0.155107 0.481068 0.379638 -0.266775 -0.885836 54 43 39
0.0794962 -0.154958 0.480579 0.383167 0.0525607 -0.922183 63 54 48
0.0813079 -0.155753 0.486642 0.0741123 -0.594113 -0.80096 59 51 46
0.0847969 -0.155358 0.486674 0.416703 0.222634 -0.881358 71 63 55
0.0861657 -0.155506 0.487974 0.416806 0.191492 -0.888596 79 71 61
0.0877787 -0.155861 0.490204 0.409906 0.248263 -0.877692 74 65 54
0.0899738 -0.156036 0.491931 -0.232436 0.479576 -0.846156 86 79 66
0.0931256 -0.156085 0.493276 0.233015 0.307298 -0.922644 99 91 78
0.0944197 -0.156856 0.493796 0.263803 0.641956 -0.719931 71 65 55
0.0985432 -0.154693 0.489813 -0.20481 0.900813 -0.382868 84 75 64
0.0996934 -0.154487 0.487551 0.0366716 0.791137 -0.610539 81 72 64
0.100306 -0.153617 0.485792 -0.0310021 0.868093 -0.495432 89 76 65
0.162633 -0.139896 0.447986 -0.178263 0.234418 -0.955652 150 144 123
0.197667 -0.120168 0.376349 -0.591656 -0.631629 -0.500987 173 125 93
0.199778 -0.119236 0.374194 0.0819637 -0.60408 -0.792697 44 36 34
-0.53051 -0.339365 1.04454 0.0539515 0.323545 -0.944673 109 99 84
-0.5289 -0.339747 1.04558 0.514762 0.215751 -0.829742 140 129 110
-0.527613 -0.3402 1.0468 0.71038 0.231597 -0.664622 150 139 115
-0.527284 -0.340382 1.04744 0.761404 0.201522 -0.616159 153 141 117
-0.526285 -0.340753 1.04786 0.712877 0.226581 -0.663677 158 146 120
-0.525843 -0.339129 1.04707 0.651415 0.212326 -0.728406 159 145 115
-0.524862 -0.340531 1.04747 0.542111 0.195659 -0.817211 160 148 120
-0.518888 -0.339308 1.04874 0.742873 0.334543 -0.579846 167 155 124
-0.503994 -0.342759 1.0665 0.825213 0.191532 -0.531356 159 146 118
-0.501888 -0.342063 1.06885 0.6519 0.254808 -0.714212 152 140 104
-0.501819 -0.342048 1.06891 0.627953 0.261332 -0.733063 152 139 103
-0.500765 -0.342793 1.0701 0.849069 0.209739 -0.484862 160 142 104
-0.498823 -0.343327 1.07222 0.458035 0.231713 -0.858204 117 74 51
-0.3856 -0.625754 2.38476 0.783439 0.22667 -0.578657 194 180 139
-0.381103 -0.625385 2.38382 0.78254 0.194919 -0.591302 185 168 122
-0.372081 -0.626374 2.39181 0.733116 0.197657 -0.650748 62 54 27
-0.225187 -0.597017 2.33445 -0.829261 0.256503 -0.496519 197 179 119
-0.221459 -0.596538 2.32999 -0.82695 -0.031786 -0.561377 72 61 21
-0.0249455 -0.16373 0.478409 -0.466874 0.519041 -0.715978 46 40 34
-0.0232351 -0.163731 0.479578 -0.190239 0.866991 -0.460582 47 39 34
-0.0220022 -0.163573 0.479808 0.0714511 -0.0267787 -0.997085 46 39 34
-0.019489 -0.163645 0.480509 0.163044 0.0356163 -0.985976 45 38 33
-0.018182 -0.163638 0.480991 0.146524 0.0362801 -0.988542 46 38 34
-0.0176726 -0.163536 0.480257 0.154222 0.0882121 -0.984091 45 39 35
-0.0180053 -0.163266 0.478144 0.471344 0.154267 -0.868353 49 42 36
-0.0156041 -0.163209 0.480244 -0.127334 -0.0805324 -0.988585 57 52 47
-0.010628 -0.162032 0.479488 -0.226566 -0.202859 -0.952636 69 64 55
-0.00969805 -0.161972 0.47868 -0.256581 -0.152031 -0.954491 65 60 50
-0.00777421 -0.162239 0.47855 -0.134141 -0.00497897 -0.99095 71 67 57
-8.32808e-05 -0.163524 0.487341 0.104722 -0.651493 -0.751392 69 62 53
0.00120472 -0.162701 0.486433 0.104253 -0.670063 -0.734946 69 62 55
0.00253576 -0.163054 0.488608 0.242232 -0.492644 -0.835838 64 58 51
0.00322758 -0.163409 0.48857 0.275136 -0.499812 -0.821272 64 58 51
0.00434523 -0.163329 0.491371 0.0952113 -0.67768 -0.729168 71 64 53
0.0058116 -0.16341 0.492044 0.184309 -0.582382 -0.791746 75 64 56
0.00679413 -0.163817 0.49251 0.2738 -0.508917 -0.816111 69 62 55
0.00830116 -0.163046 0.491936 0.251802 -0.52782 -0.811173 60 55 47
0.00906739 -0.163618 0.492819 0.0745724 -0.594931 -0.80031 46 42 36
0.0104549 -0.162858 0.491646 0.304038 -0.456413 -0.83621 54 49 41
0.0125478 -0.162556 0.491073 0.0481573 -0.574939 -0.816777 61 55 46
0.0276052 -0.160137 0.48477 -0.168625 0.145006 -0.974956 75 67 55
0.034176 -0.158814 0.482693 0.0567366 -0.309599 -0.949173 93 86 70
0.0353028 -0.15857 0.480749 0.0547909 -0.083653 -0.994987 87 81 68
0.0370307 -0.159087 0.485215 0.0622253 -0.395624 -0.916302 94 86 71
0.0452556 -0.158778 0.485692 -0.0343445 0.322652 -0.945894 82 74 64
0.046445 -0.158805 0.485917 -0.00902337 0.104461 -0.994488 79 73 61
0.0466759 -0.157861 0.485565 0.167655 0.19025 -0.967314 113 105 89
0.0505514 -0.157723 0.483213 -0.543008 0.528945 -0.652195 77 70 59
0.0516067 -0.157763 0.483186 -0.576476 0.441026 -0.687874 73 65 55
0.0546467 -0.155585 0.476929 -0.174056 -0.0867328 -0.980909 97 90 80
0.0561946 -0.156536 0.481039 -0.0272981 -0.124412 -0.991855 79 72 65
0.0549166 -0.155512 0.476495 -0.00788656 -0.225963 -0.974104 94 87 77
0.0558363 -0.155972 0.480525 0.0221565 -0.295524 -0.955078 118 110 98
0.0572178 -0.156522 0.480501 -0.376352 -0.193297 -0.906088 68 60 54
0.0570019 -0.154589 0.473284 0.208149 0.717224 -0.665029 103 97 85
0.0588435 -0.15564 0.48104 -0.165663 -0.446427 -0.879351 135 127 111
0.0587387 -0.15561 0.480803 -0.144924 -0.519156 -0.842303 134 126 110
0.0603822 -0.155717 0.481422 0.357029 -0.318755 -0.878024 123 116 100
0.061131 -0.155554 0.480651 0.42524 -0.257886 -0.867563 118 110 96
0.0667262 -0.155621 0.483869 -0.1963 0.722616 -0.662792 132 124 108
0.0682581 -0.155702 0.484461 -0.0797821 0.13153 -0.988096 132 122 107
0.0693893 -0.155832 0.484187 0.112522 0.118214 -0.986592 105 96 85
0.0726492 -0.154844 0.482565 0.127471 -0.634551 -0.762296 136 129 113
0.0760888 -0.154347 0.481972 0.0713274 -0.0351119 -0.996835 140 132 110
0.0800494 -0.153775 0.48077 0.441001 0.00382344 -0.897498 144 136 117
0.0818939 -0.153891 0.482947 0.327981 -0.377335 -0.866052 153 142 120
0.0919601 -0.154993 0.49269 0.301679 0.304411 -0.903506 158 144 118
0.0992576 -0.153285 0.487052 0.195705 0.725133 -0.660214 160 137 111
0.161328 -0.13897 0.448075 0.302803 0.369622 -0.878459 110 106 91
0.161733 -0.138932 0.447675 0.0145957 0.190919 -0.981497 141 135 117
0.163053 -0.138956 0.448089 0.143704 0.299731 -0.943139 161 153 132
0.195743 -0.120105 0.378841 -0.505145 -0.733592 -0.454612 158 112 82
0.197561 -0.118134 0.373841 -0.223083 -0.615782 -0.755676 120 77 62
0.208967 -0.11852 0.380707 0.000676185 -0.696394 -0.717659 42 38 38
0.208967 -0.11852 0.380707 0.000676185 -0.696394 -0.717659 42 38 38
-0.528956 -0.337448 1.04353 0.414734 0.337185 -0.845164 122 111 92
-0.526944 -0.338822 1.04742 0.699303 0.230262 -0.676723 155 142 117
-0.528114 -0.338463 1.04744 0.755441 0.228798 -0.613971 149 137 114
-0.527813 -0.338449 1.04729 0.737284 0.227662 -0.636068 151 138 115
-0.526343 -0.337355 1.04757 0.70072 0.178992 -0.690618 159 146 118
-0.525196 -0.337774 1.04744 0.715791 0.204592 -0.667672 159 147 118
-0.50266 -0.339103 1.06009 0.87787 -0.223901 -0.423334 166 155 123
-0.503201 -0.341037 1.06675 0.729079 0.204574 -0.653141 153 143 112
-0.502498 -0.339202 1.06576 0.761947 0.189265 -0.619368 149 139 106
-0.499668 -0.341125 1.06906 0.850692 -0.0105131 -0.525559 140 116 80
-0.39334 -0.619658 2.37643 0.776281 0.40505 -0.483035 158 146 123
-0.390898 -0.622131 2.38117 0.806188 0.349638 -0.477299 193 181 153
-0.384281 -0.62178 2.38433 0.782216 0.209203 -0.586832 203 190 154
-0.381633 -0.623019 2.38413 0.787785 0.177124 -0.589934 184 166 120
-0.378362 -0.620023 2.38582 0.730314 0.268518 -0.628124 165 147 100
-0.37368 -0.621802 2.38945 0.782173 0.178339 -0.596993 85 74 42
-0.36945 -0.6216 2.39456 0.778692 0.193661 -0.59677 50 43 30
-0.261339 -0.588246 2.2942 0.751165 0.245669 -0.612697 198 188 156
-0.22641 -0.595612 2.33772 -0.744918 0.0885392 -0.661254 202 184 129
-0.221257 -0.592417 2.32958 -0.831026 -0.00667375 -0.556193 60 46 12
-0.0211793 -0.162726 0.480238 0.0168678 -0.0850162 -0.996237 70 63 56
-0.0197245 -0.162811 0.48102 0.0643869 0.0289893 -0.997504 58 51 45
-0.0190554 -0.16274 0.480578 0.148519 0.111912 -0.982557 64 57 52
-0.0180389 -0.162682 0.48056 0.119065 0.115348 -0.986163 68 62 56
-0.016334 -0.161822 0.480433 -0.229216 -0.237287 -0.94401 109 102 90
-0.0160705 -0.162157 0.48057 -0.208741 -0.271892 -0.939416 75 69 59
-0.0148949 -0.162147 0.480162 -0.25153 -0.134442 -0.958466 81 74 66
-0.0134204 -0.161994 0.480089 -0.485219 -0.0709445 -0.87151 81 74 66
-0.0123281 -0.161972 0.47956 -0.393752 -0.13004 -0.909972 71 65 57
-0.0103972 -0.160895 0.478729 -0.235103 -0.0777315 -0.968857 105 99 84
-0.00920939 -0.161255 0.47877 0.331155 0.600535 -0.727801 77 71 60
-0.00824729 -0.161283 0.478801 0.198828 0.751237 -0.629374 74 67 57
-0.00695264 -0.161219 0.47871 -0.154589 0.143012 -0.977574 73 67 55
-0.00479007 -0.160315 0.478552 -0.030605 0.287877 -0.957178 110 101 85
-0.00363224 -0.16054 0.48038 0.0984028 0.244863 -0.964551 115 105 83
0.000346701 -0.16228 0.486839 0.0942444 -0.678969 -0.728093 76 67 57
0.00331351 -0.161908 0.488019 0.26711 -0.510739 -0.817189 96 87 72
0.00568458 -0.162493 0.490755 0.149836 -0.633972 -0.758702 100 90 75
0.00687517 -0.162541 0.491253 0.166304 -0.616888 -0.76928 85 77 64
0.0077067 -0.161612 0.489923 0.0921905 -0.679601 -0.727766 120 111 92
0.00882089 -0.160708 0.48432 0.0143685 -0.543907 -0.839022 100 92 78
0.0083298 -0.160567 0.484523 0.0937832 -0.455029 -0.885524 118 110 91
0.00946755 -0.160523 0.484321 -0.0623354 -0.411276 -0.909377 110 101 86
0.00925956 -0.160196 0.481841 0.173737 -0.610218 -0.772948 97 90 76
0.00979086 -0.160357 0.482769 0.119736 -0.43497 -0.892449 97 90 77
0.0130435 -0.161515 0.492243 0.0740636 -0.691551 -0.718521 119 109 91
0.0150789 -0.161729 0.491108 0.0507381 -0.706024 -0.706368 73 67 56
0.0197498 -0.16116 0.492261 -0.0809807 -0.747642 -0.659146 108 97 82
0.0193773 -0.161477 0.493018 -0.0833459 -0.747691 -0.658796 98 87 73
0.0226812 -0.1609 0.491607 -0.521387 -0.444574 -0.728361 101 92 78
0.0218559 -0.159956 0.489067 -0.140668 -0.746965 -0.649813 132 122 101
0.0249188 -0.160878 0.490574 -0.578718 -0.422014 -0.697846 80 71 58
0.0345679 -0.157787 0.482055 -0.0401281 -0.22822 -0.972782 132 121 99
0.0349777 -0.157665 0.480915 0.0203445 -0.185849 -0.982368 124 114 95
0.0443114 -0.156871 0.485008 0.0946676 0.814639 -0.57219 154 143 118
0.045164 -0.156959 0.485675 0.326004 0.172195 -0.929554 153 142 117
0.0460804 -0.156932 0.485602 0.148584 0.14154 -0.978718 151 142 117
0.046514 -0.15682 0.484797 0.203936 0.176607 -0.962923 149 140 116
0.0484043 -0.156964 0.48629 -0.326427 -0.0279491 -0.944809 149 140 117
0.0569013 -0.155553 0.481036 -0.35566 -0.0771069 -0.931429 146 138 120
0.0567877 -0.155142 0.481041 -0.30883 -0.251782 -0.917186 153 145 124
0.0577535 -0.154561 0.479799 -0.193779 -0.238083 -0.951717 165 157 132
0.0573116 -0.154876 0.479074 -0.0402373 -0.506346 -0.861391 158 150 128
0.0573116 -0.154876 0.479074 -0.0402373 -0.506346 -0.861391 158 150 128
0.0600936 -0.154594 0.481491 0.317592 -0.282056 -0.905307 169 160 131
0.0611189 -0.154517 0.481149 0.199564 -0.365306 -0.909245 165 156 131
0.0676341 -0.154854 0.484716 -0.108091 0.449857 -0.886535 169 160 136
0.0688887 -0.154887 0.484887 -0.112636 0.452497 -0.884624 168 158 133
0.0744344 -0.153525 0.482087 0.0499303 -0.69622 -0.71609 162 154 129
0.0772546 -0.153295 0.481413 0.231768 0.167096 -0.958312 165 155 130
0.0784722 -0.153363 0.482428 0.246592 0.141992 -0.958661 164 155 129
0.0796384 -0.152682 0.480985 0.434543 0.0443644 -0.899558 168 158 131
0.0807095 -0.152384 0.480074 0.348801 -0.318975 -0.881245 167 158 132
0.0807551 -0.152419 0.479849 0.344805 -0.327865 -0.879553 167 158 132
0.0811996 -0.152664 0.482002 0.328307 -0.364052 -0.871597 168 158 132
0.0824974 -0.152521 0.481216 0.0626528 -0.688157 -0.722851 169 158 129
0.0885377 -0.154928 0.491721 0.430149 0.192506 -0.881994 150 137 109
0.09028 -0.155076 0.493316 0.0493883 0.335733 -0.940662 157 144 116
0.0908878 -0.154999 0.492662 0.0633911 0.369349 -0.927126 159 145 118
0.0981524 -0.153356 0.489437 0.285776 0.703539 -0.650665 178 151 117
0.0996759 -0.152382 0.484717 0.124319 0.732522 -0.669296 166 146 116
0.161444 -0.137874 0.448137 0.291996 0.344977 -0.892036 144 135 117
0.16334 -0.137901 0.449801 0.356351 0.231241 -0.905285 133 122 106
0.163401 -0.13797 0.449599 0.372623 0.273201 -0.886856 133 122 106
0.198508 -0.116413 0.370499 0.0822671 -0.623274 -0.777664 100 95 82
-0.53048 -0.335983 1.04555 0.528563 0.156374 -0.834367 111 100 84
-0.528466 -0.336496 1.04682 0.660114 0.190303 -0.72666 148 136 114
-0.528914 -0.336327 1.04601 0.518223 0.190852 -0.833679 141 130 110
-0.525787 -0.335777 1.04675 0.658238 0.205104 -0.724331 158 145 117
-0.525734 -0.335693 1.04683 0.684891 0.225093 -0.693006 158 145 117
-0.502141 -0.337923 1.06803 0.558059 0.35544 -0.749822 142 125 91
-0.500829 -0.338845 1.07086 0.800694 0.394729 -0.450642 146 132 95
-0.38306 -0.617518 2.38189 0.784749 0.172443 -0.595342 194 179 140
-0.384907 -0.617364 2.38789 0.789332 0.155408 -0.593972 193 177 135
-0.384894 -0.617381 2.38798 0.789854 0.15539 -0.593282 204 190 154
-0.385107 -0.617092 2.38644 0.790268 0.145752 -0.595174 200 186 151
-0.371229 -0.616412 2.39087 0.721856 0.250836 -0.644985 55 47 28
-0.229143 -0.592728 2.34311 -0.825078 -0.0360414 -0.563869 202 186 142
-0.019464 -0.16181 0.480536 0.123884 0.174987 -0.976746 141 132 115
-0.020192 -0.161901 0.480938 -0.296459 -0.129575 -0.946215 146 137 119
-0.0186855 -0.161749 0.480223 0.185236 -0.133759 -0.973548 134 126 111
-0.0184193 -0.161795 0.48068 0.138258 0.193044 -0.9714 135 127 112
-0.0175041 -0.161766 0.480471 0.0388227 -0.115847 -0.992508 128 122 107
-0.0171071 -0.160801 0.479982 -0.0235106 -0.230494 -0.97279 162 153 129
-0.0158171 -0.160824 0.480057 -0.10258 -0.239451 -0.965474 159 151 128
-0.0142083 -0.160881 0.479907 -0.435319 0.0750469 -0.897143 154 146 125
-0.0129133 -0.160899 0.479716 -0.270681 -0.0795135 -0.95938 141 134 115
-0.0119312 -0.160855 0.479004 -0.419298 -0.0154678 -0.907717 122 116 98
-0.0100633 -0.159972 0.478934 -0.396834 -0.278209 -0.874713 160 151 125
-0.00854975 -0.160379 0.47884 -0.0627385 0.388778 -0.919193 134 126 106
-0.00750946 -0.16038 0.478968 0.101831 0.362665 -0.926339 127 118 99
-0.00655689 -0.159394 0.478226 -0.0140136 0.145162 -0.989309 154 143 115
-0.00583735 -0.160297 0.478454 -0.0576022 0.3743 -0.925517 119 111 93
-0.00545047 -0.159413 0.47838 0.0115084 0.0974975 -0.995169 156 145 117
-0.00271508 -0.15976 0.481353 -0.0290305 0.212285 -0.976777 159 146 118
0.0018625 -0.161413 0.487048 0.299853 -0.462288 -0.834493 121 110 91
0.00599676 -0.161392 0.490083 0.133837 -0.647917 -0.749861 138 125 101
0.00702815 -0.160551 0.489115 0.161417 -0.623063 -0.765334 154 142 114
0.00675366 -0.158804 0.481784 0.107453 -0.475046 -0.873376 165 151 120
0.00797779 -0.159347 0.482277 0.10583 -0.5003 -0.85936 162 150 122
0.00812511 -0.159361 0.482553 0.0951078 -0.461167 -0.882201 163 150 122
0.00912301 -0.159305 0.482318 0.132801 -0.376826 -0.916715 161 149 122
0.00983571 -0.158948 0.481219 0.0197563 -0.397094 -0.917565 163 151 123
0.0122009 -0.159173 0.483239 0.0154165 -0.180591 -0.983437 162 150 122
0.0117514 -0.159377 0.484828 0.0953778 -0.602164 -0.792655 166 153 123
0.0145113 -0.159716 0.486527 0.340683 -0.388432 -0.856187 162 150 120
0.0182459 -0.159528 0.490053 -0.171187 -0.74619 -0.643347 169 153 122
0.0177176 -0.159923 0.489367 -0.0187939 -0.63366 -0.773383 161 148 121
0.0177176 -0.159923 0.489367 -0.0187939 -0.63366 -0.773383 161 148 121
0.0199573 -0.160115 0.49104 -0.0277852 -0.276928 -0.960489 157 144 118
0.0258971 -0.159119 0.490252 -0.667141 -0.245649 -0.703264 157 143 114
0.0260336 -0.159309 0.488191 -0.647969 0.0570496 -0.759527 138 126 104
0.033967 -0.156836 0.481808 -0.0197333 -0.508962 -0.860563 162 148 118
0.039617 -0.156295 0.483559 -0.132716 0.749064 -0.649068 161 149 121
0.0407984 -0.156718 0.483308 0.0316225 0.506438 -0.861696 155 143 117
0.0455086 -0.156004 0.485623 0.202385 0.174681 -0.963601 161 151 124
0.0457208 -0.155971 0.486128 0.110767 0.131851 -0.985061 162 152 124
0.0459976 -0.155902 0.484885 0.112874 0.162736 -0.980192 160 150 123
0.0499821 -0.155976 0.485093 -0.422634 -0.0393076 -0.905448 154 145 119
0.052062 -0.155104 0.484382 -0.260285 0.85378 -0.450901 167 158 132
0.0544619 -0.155342 0.485115 -0.275091 0.905665 -0.32264 160 150 125
0.0571644 -0.154648 0.480794 -0.246876 -0.245046 -0.937552 160 151 127
0.0595107 -0.153336 0.480093 -0.0070549 -0.401831 -0.915686 170 161 132
0.060996 -0.153563 0.481583 0.232496 -0.376364 -0.896825 176 165 135
0.0683276 -0.154049 0.485239 0.104846 0.345367 -0.932593 182 171 140
0.0683335 -0.15405 0.485247 0.106507 0.343663 -0.933034 182 171 140
0.0694968 -0.15312 0.483329 -0.0125824 0.18178 -0.983259 177 169 140
0.0704467 -0.153104 0.483177 -0.0777861 0.171398 -0.982126 177 169 141
0.0704833 -0.152938 0.4816 -0.0943757 0.292862 -0.951486 176 167 139
0.0748955 -0.152124 0.479475 0.102898 0.236963 -0.966054 179 168 139
0.0757754 -0.152114 0.479466 0.244095 0.17677 -0.953504 174 165 136
0.0789103 -0.152053 0.480852 0.239423 0.154115 -0.958606 174 164 135
0.0819507 -0.15102 0.478735 0.124375 -0.639725 -0.758474 177 166 134
0.0822901 -0.151193 0.477221 -0.305298 -0.405281 -0.861708 164 155 126
0.0978843 -0.150766 0.482638 -0.280697 -0.520089 -0.80667 180 147 109
0.161494 -0.136766 0.448469 0.266153 0.346806 -0.899382 139 125 106
0.162888 -0.136794 0.449016 0.203571 0.343088 -0.916978 128 113 96
